ply
format ascii 1.0
element vertex 1127
property float x
property float y
property float z
property uchar red
property uchar green
property uchar blue
end_header
0.705882 -1.529412 -20.329412 22 109 145 
0.764706 -1.529412 -20.329412 25 108 144 
0.823529 -1.529412 -20.329412 27 107 142 
0.882353 -1.529412 -20.329412 26 104 139 
0.941176 -1.529412 -20.329412 27 102 137 
1.000000 -1.529412 -20.329412 27 100 135 
1.058824 -1.529412 -20.329412 27 99 132 
1.117647 -1.529412 -20.329412 28 97 129 
1.176471 -1.529412 -20.329412 28 96 127 
1.235294 -1.529412 -20.329412 26 93 121 
1.294118 -1.529412 -20.329412 27 91 116 
1.352941 -1.529412 -20.329412 30 88 108 
1.411765 -1.529412 -20.329412 36 84 100 
1.470588 -1.529412 -20.329412 47 79 91 
1.529412 -1.529412 -20.329412 56 74 80 
1.588235 -1.529412 -20.329412 62 65 66 
1.647059 -1.529412 -20.329412 63 55 51 
1.705882 -1.529412 -20.329412 61 48 41 
1.764706 -1.529412 -20.329412 59 42 34 
1.823529 -1.529412 -20.329412 61 41 34 
4.340425 -2.212766 -29.412767 37 25 21 
4.425532 -2.212766 -29.412767 33 23 17 
4.534760 -2.224599 -29.570053 33 24 16 
4.620321 -2.224599 -29.570053 38 29 19 
4.705883 -2.224599 -29.570053 52 43 30 
4.765957 -2.212766 -29.412767 90 77 62 
5.038674 -2.298342 -30.550278 123 108 90 
5.272727 -2.363636 -31.418182 126 110 90 
4.117647 -1.529412 -20.329412 116 90 73 
4.176471 -1.529412 -20.329412 125 98 81 
4.235294 -1.529412 -20.329412 132 105 88 
4.294117 -1.529412 -20.329412 135 109 92 
4.352941 -1.529412 -20.329412 136 110 93 
4.411765 -1.529412 -20.329412 135 107 93 
4.470588 -1.529412 -20.329412 132 104 92 
4.529412 -1.529412 -20.329412 124 98 87 
4.588235 -1.529412 -20.329412 104 80 72 
4.647059 -1.529412 -20.329412 86 64 58 
4.705883 -1.529412 -20.329412 69 49 43 
4.764706 -1.529412 -20.329412 52 34 29 
4.823529 -1.529412 -20.329412 41 25 21 
4.882353 -1.529412 -20.329412 34 20 16 
4.941176 -1.529412 -20.329412 30 19 15 
5.000000 -1.529412 -20.329412 30 19 15 
5.058824 -1.529412 -20.329412 30 19 17 
5.117647 -1.529412 -20.329412 31 20 19 
5.176471 -1.529412 -20.329412 30 19 17 
5.235294 -1.529412 -20.329412 31 21 18 
5.294117 -1.529412 -20.329412 31 21 18 
5.352941 -1.529412 -20.329412 32 20 18 
5.411765 -1.529412 -20.329412 34 20 19 
5.470588 -1.529412 -20.329412 35 20 20 
5.529412 -1.529412 -20.329412 37 20 21 
5.588235 -1.529412 -20.329412 37 20 21 
5.647059 -1.529412 -20.329412 38 21 22 
5.705883 -1.529412 -20.329412 38 20 21 
5.764706 -1.529412 -20.329412 39 21 21 
5.823529 -1.529412 -20.329412 41 23 21 
5.882353 -1.529412 -20.329412 41 24 22 
5.941176 -1.529412 -20.329412 41 25 21 
6.000000 -1.529412 -20.329412 42 25 21 
6.058824 -1.529412 -20.329412 42 24 21 
6.117647 -1.529412 -20.329412 42 24 21 
6.176471 -1.529412 -20.329412 42 24 21 
6.235294 -1.529412 -20.329412 40 22 19 
6.294117 -1.529412 -20.329412 41 23 20 
6.352941 -1.529412 -20.329412 41 25 21 
6.411765 -1.529412 -20.329412 45 29 25 
6.470588 -1.529412 -20.329412 47 30 26 
6.529412 -1.529412 -20.329412 49 31 27 
6.588235 -1.529412 -20.329412 51 33 28 
6.647059 -1.529412 -20.329412 51 34 29 
6.705883 -1.529412 -20.329412 51 35 29 
6.764706 -1.529412 -20.329412 53 36 30 
6.823529 -1.529412 -20.329412 53 36 28 
6.882353 -1.529412 -20.329412 53 36 28 
6.941176 -1.529412 -20.329412 53 36 27 
7.000000 -1.529412 -20.329412 55 37 27 
7.058824 -1.529412 -20.329412 55 34 26 
7.117647 -1.529412 -20.329412 58 36 27 
7.176471 -1.529412 -20.329412 61 39 28 
7.235294 -1.529412 -20.329412 61 39 26 
7.294117 -1.529412 -20.329412 69 47 33 
7.352941 -1.529412 -20.329412 84 62 47 
7.411765 -1.529412 -20.329412 118 98 80 
7.470588 -1.529412 -20.329412 153 133 114 
7.529412 -1.529412 -20.329412 164 145 124 
7.588235 -1.529412 -20.329412 167 148 125 
7.647059 -1.529412 -20.329412 167 150 124 
7.705883 -1.529412 -20.329412 165 148 122 
7.764706 -1.529412 -20.329412 163 148 120 
7.823529 -1.529412 -20.329412 162 148 119 
7.882353 -1.529412 -20.329412 161 147 118 
8.339768 -1.606178 -21.349808 159 144 116 
8.600791 -1.644269 -21.856127 157 139 114 
8.803213 -1.670683 -22.207230 147 128 105 
8.867470 -1.670683 -22.207230 136 115 92 
8.931726 -1.670683 -22.207230 123 102 79 
8.960000 -1.664000 -22.118401 104 83 60 
8.952381 -1.650794 -21.942858 89 67 43 
8.909804 -1.631373 -21.684706 84 61 37 
8.937500 -1.625000 -21.600000 88 64 40 
9.216000 -1.664000 -22.118401 88 64 40 
95.000000 -13.000000 -172.800003 45 30 16 
95.500000 -13.000000 -172.800003 48 32 19 
96.000000 -13.000000 -172.800003 50 34 21 
96.500000 -13.000000 -172.800003 51 33 21 
97.000000 -13.000000 -172.800003 51 32 20 
97.500000 -13.000000 -172.800003 52 33 20 
98.000000 -13.000000 -172.800003 53 34 20 
12.836502 -1.581749 -21.025095 64 42 24 
12.470589 -1.529412 -20.329412 65 43 25 
12.529411 -1.529412 -20.329412 64 42 24 
12.588235 -1.529412 -20.329412 63 41 24 
12.647058 -1.529412 -20.329412 63 40 25 
-49.000000 -13.500000 -172.800003 206 202 194 
-48.500000 -13.500000 -172.800003 206 202 194 
-48.000000 -13.500000 -172.800003 206 202 194 
-47.500000 -13.500000 -172.800003 206 202 194 
-47.000000 -13.500000 -172.800003 206 202 194 
-46.500000 -13.500000 -172.800003 206 202 194 
-46.000000 -13.500000 -172.800003 205 201 193 
-45.500000 -13.500000 -172.800003 202 201 190 
-45.000000 -13.500000 -172.800003 201 200 189 
-44.500000 -13.500000 -172.800003 201 200 189 
-44.000000 -13.500000 -172.800003 201 200 189 
-43.500000 -13.500000 -172.800003 200 200 188 
-43.000000 -13.500000 -172.800003 199 201 186 
-42.500000 -13.500000 -172.800003 199 201 186 
-42.000000 -13.500000 -172.800003 199 201 186 
-41.500000 -13.500000 -172.800003 199 201 186 
-41.000000 -13.500000 -172.800003 198 199 186 
-40.500000 -13.500000 -172.800003 198 197 186 
-40.000000 -13.500000 -172.800003 197 196 185 
-39.500000 -13.500000 -172.800003 197 196 185 
-39.000000 -13.500000 -172.800003 195 194 183 
-38.500000 -13.500000 -172.800003 195 195 183 
-38.000000 -13.500000 -172.800003 192 193 182 
-37.500000 -13.500000 -172.800003 190 192 184 
-37.000000 -13.500000 -172.800003 186 192 190 
-36.500000 -13.500000 -172.800003 171 186 191 
-36.000000 -13.500000 -172.800003 115 153 166 
-35.500000 -13.500000 -172.800003 62 116 135 
-35.000000 -13.500000 -172.800003 43 110 134 
-34.500000 -13.500000 -172.800003 38 113 143 
-34.000000 -13.500000 -172.800003 34 115 149 
-33.500000 -13.500000 -172.800003 36 116 156 
-33.000000 -13.500000 -172.800003 32 113 154 
-32.500000 -13.500000 -172.800003 23 105 146 
-32.000000 -13.500000 -172.800003 18 97 141 
-31.500000 -13.500000 -172.800003 16 90 136 
-31.000000 -13.500000 -172.800003 17 88 134 
-30.500000 -13.500000 -172.800003 18 88 133 
-30.000000 -13.500000 -172.800003 17 86 131 
-3.285714 -1.928571 -24.685715 17 82 115 
-3.214286 -1.928571 -24.685715 21 83 116 
-3.142857 -1.928571 -24.685715 23 81 113 
-3.017544 -1.894737 -24.252632 27 79 108 
-2.859575 -1.838298 -23.530212 38 82 104 
-2.756303 -1.815126 -23.233614 74 110 126 
-2.666667 -1.800000 -23.040001 130 159 172 
-2.600000 -1.800000 -23.040001 173 198 210 
-2.533333 -1.800000 -23.040001 180 206 214 
-2.456432 -1.792531 -22.944399 172 205 210 
-2.370370 -1.777778 -22.755556 157 203 216 
-2.295082 -1.770492 -22.662296 115 179 201 
-2.202429 -1.748988 -22.387045 61 144 174 
-2.103586 -1.721116 -22.030279 33 132 167 
-2.015748 -1.700787 -21.770079 24 133 171 
-1.929961 -1.680934 -21.515953 19 133 174 
-1.846154 -1.661538 -21.267693 16 131 175 
-1.764259 -1.642586 -21.025095 18 132 176 
-1.647059 -1.588235 -20.329412 19 132 177 
-1.588235 -1.588235 -20.329412 21 134 178 
-1.529412 -1.588235 -20.329412 20 133 177 
-1.470588 -1.588235 -20.329412 18 131 175 
-1.411765 -1.588235 -20.329412 20 129 175 
-1.352941 -1.588235 -20.329412 19 129 175 
-1.294118 -1.588235 -20.329412 20 128 176 
-1.235294 -1.588235 -20.329412 21 128 177 
-1.176471 -1.588235 -20.329412 20 127 177 
-1.117647 -1.588235 -20.329412 21 126 177 
-1.058824 -1.588235 -20.329412 20 125 176 
-1.000000 -1.588235 -20.329412 17 122 173 
-0.941176 -1.588235 -20.329412 17 122 173 
-0.882353 -1.588235 -20.329412 16 122 173 
-0.823529 -1.588235 -20.329412 16 123 173 
-0.764706 -1.588235 -20.329412 16 123 173 
-0.705882 -1.588235 -20.329412 16 122 174 
-0.647059 -1.588235 -20.329412 16 123 172 
-0.588235 -1.588235 -20.329412 16 122 171 
-0.529412 -1.588235 -20.329412 15 121 170 
-0.470588 -1.588235 -20.329412 14 121 169 
-0.411765 -1.588235 -20.329412 16 122 169 
-0.352941 -1.588235 -20.329412 17 124 171 
-0.294118 -1.588235 -20.329412 21 126 173 
-0.235294 -1.588235 -20.329412 19 124 171 
-0.176471 -1.588235 -20.329412 14 119 165 
-0.117647 -1.588235 -20.329412 13 117 162 
-0.058824 -1.588235 -20.329412 14 116 161 
0.000000 -1.588235 -20.329412 15 117 162 
0.058824 -1.588235 -20.329412 16 118 163 
0.117647 -1.588235 -20.329412 14 116 161 
0.176471 -1.588235 -20.329412 14 117 162 
0.235294 -1.588235 -20.329412 13 115 160 
0.294118 -1.588235 -20.329412 14 114 159 
0.352941 -1.588235 -20.329412 14 111 156 
0.411765 -1.588235 -20.329412 16 110 154 
0.470588 -1.588235 -20.329412 16 108 151 
0.529412 -1.588235 -20.329412 14 106 148 
0.588235 -1.588235 -20.329412 14 105 146 
0.647059 -1.588235 -20.329412 15 106 144 
0.705882 -1.588235 -20.329412 20 107 144 
0.764706 -1.588235 -20.329412 23 107 143 
0.823529 -1.588235 -20.329412 26 107 143 
0.882353 -1.588235 -20.329412 27 105 141 
0.941176 -1.588235 -20.329412 28 104 140 
1.000000 -1.588235 -20.329412 28 101 137 
1.058824 -1.588235 -20.329412 28 100 133 
1.117647 -1.588235 -20.329412 28 97 129 
1.176471 -1.588235 -20.329412 28 96 127 
1.235294 -1.588235 -20.329412 26 93 121 
1.294118 -1.588235 -20.329412 27 91 116 
1.352941 -1.588235 -20.329412 30 88 109 
1.411765 -1.588235 -20.329412 38 85 102 
1.470588 -1.588235 -20.329412 48 81 94 
1.529412 -1.588235 -20.329412 55 73 81 
1.588235 -1.588235 -20.329412 62 66 68 
1.647059 -1.588235 -20.329412 62 55 53 
1.705882 -1.588235 -20.329412 61 48 42 
4.255319 -2.297872 -29.412767 48 34 31 
4.340425 -2.297872 -29.412767 41 28 25 
4.449198 -2.310160 -29.570053 36 25 20 
4.534760 -2.310160 -29.570053 36 27 19 
4.645161 -2.322581 -29.729033 36 28 17 
4.808743 -2.360656 -30.216394 49 40 26 
4.950276 -2.386740 -30.550278 85 73 56 
5.123596 -2.426966 -31.065168 123 108 90 
5.272727 -2.454545 -31.418182 125 107 89 
5.363636 -2.454545 -31.418182 123 102 84 
4.117647 -1.588235 -20.329412 123 96 79 
4.176471 -1.588235 -20.329412 128 101 83 
4.235294 -1.588235 -20.329412 130 103 85 
4.294117 -1.588235 -20.329412 134 107 89 
4.352941 -1.588235 -20.329412 135 108 91 
4.411765 -1.588235 -20.329412 132 105 90 
4.470588 -1.588235 -20.329412 134 106 94 
4.529412 -1.588235 -20.329412 128 102 92 
4.588235 -1.588235 -20.329412 114 90 82 
4.647059 -1.588235 -20.329412 101 79 72 
4.705883 -1.588235 -20.329412 86 66 61 
4.764706 -1.588235 -20.329412 58 41 36 
4.823529 -1.588235 -20.329412 39 24 20 
4.882353 -1.588235 -20.329412 33 20 15 
4.941176 -1.588235 -20.329412 29 18 15 
5.000000 -1.588235 -20.329412 28 17 15 
5.058824 -1.588235 -20.329412 28 16 16 
5.117647 -1.588235 -20.329412 30 18 18 
5.176471 -1.588235 -20.329412 29 18 17 
5.235294 -1.588235 -20.329412 29 20 17 
5.294117 -1.588235 -20.329412 30 19 17 
5.352941 -1.588235 -20.329412 31 19 19 
5.411765 -1.588235 -20.329412 32 19 19 
5.470588 -1.588235 -20.329412 34 19 20 
5.529412 -1.588235 -20.329412 35 18 19 
5.588235 -1.588235 -20.329412 36 19 20 
5.647059 -1.588235 -20.329412 37 20 21 
5.705883 -1.588235 -20.329412 37 19 20 
5.764706 -1.588235 -20.329412 37 19 19 
5.823529 -1.588235 -20.329412 39 21 20 
5.882353 -1.588235 -20.329412 42 24 22 
5.941176 -1.588235 -20.329412 42 25 21 
6.000000 -1.588235 -20.329412 42 24 21 
6.058824 -1.588235 -20.329412 42 24 21 
6.117647 -1.588235 -20.329412 41 23 20 
6.176471 -1.588235 -20.329412 41 23 20 
6.235294 -1.588235 -20.329412 39 21 18 
6.294117 -1.588235 -20.329412 41 23 20 
6.352941 -1.588235 -20.329412 42 25 21 
6.411765 -1.588235 -20.329412 44 27 23 
6.470588 -1.588235 -20.329412 47 29 25 
6.529412 -1.588235 -20.329412 49 31 26 
6.588235 -1.588235 -20.329412 51 33 27 
6.647059 -1.588235 -20.329412 52 34 28 
6.705883 -1.588235 -20.329412 52 36 29 
6.764706 -1.588235 -20.329412 53 36 28 
6.823529 -1.588235 -20.329412 54 37 29 
6.882353 -1.588235 -20.329412 54 37 29 
6.941176 -1.588235 -20.329412 55 38 29 
7.000000 -1.588235 -20.329412 56 39 29 
7.058824 -1.588235 -20.329412 54 35 25 
7.117647 -1.588235 -20.329412 57 37 25 
7.176471 -1.588235 -20.329412 63 42 29 
7.235294 -1.588235 -20.329412 70 50 35 
7.294117 -1.588235 -20.329412 87 67 50 
7.352941 -1.588235 -20.329412 117 97 80 
7.411765 -1.588235 -20.329412 148 129 108 
7.470588 -1.588235 -20.329412 160 141 119 
7.529412 -1.588235 -20.329412 168 150 127 
7.588235 -1.588235 -20.329412 170 152 127 
7.647059 -1.588235 -20.329412 168 151 124 
7.705883 -1.588235 -20.329412 166 150 123 
7.764706 -1.588235 -20.329412 163 149 120 
8.153256 -1.655172 -21.186207 160 146 117 
8.786885 -1.770492 -22.662296 157 143 115 
9.000000 -1.800000 -23.040001 149 134 107 
9.066667 -1.800000 -23.040001 148 131 105 
9.171548 -1.807531 -23.136402 137 118 95 
9.238494 -1.807531 -23.136402 118 97 74 
9.266666 -1.800000 -23.040001 101 80 57 
9.294606 -1.792531 -22.944399 92 71 48 
9.245902 -1.770492 -22.662296 86 64 41 
9.198380 -1.748988 -22.387045 84 60 36 
9.263158 -1.748988 -22.387045 88 64 40 
95.500000 -13.500000 -172.800003 54 38 25 
96.000000 -13.500000 -172.800003 55 39 26 
96.500000 -13.500000 -172.800003 54 36 24 
97.000000 -13.500000 -172.800003 54 35 23 
97.500000 -13.500000 -172.800003 53 34 21 
12.411765 -1.588235 -20.329412 65 43 25 
12.470589 -1.588235 -20.329412 65 43 25 
12.529411 -1.588235 -20.329412 65 43 26 
12.588235 -1.588235 -20.329412 65 43 26 
12.647058 -1.588235 -20.329412 64 41 26 
-49.000000 -14.000000 -172.800003 206 202 194 
-48.500000 -14.000000 -172.800003 206 202 194 
-48.000000 -14.000000 -172.800003 206 202 194 
-47.500000 -14.000000 -172.800003 206 202 194 
-47.000000 -14.000000 -172.800003 206 202 194 
-46.500000 -14.000000 -172.800003 206 202 194 
-46.000000 -14.000000 -172.800003 204 202 192 
-45.500000 -14.000000 -172.800003 202 201 190 
-45.000000 -14.000000 -172.800003 201 200 189 
-44.500000 -14.000000 -172.800003 201 200 189 
-44.000000 -14.000000 -172.800003 201 200 189 
-43.500000 -14.000000 -172.800003 200 200 188 
-43.000000 -14.000000 -172.800003 199 200 186 
-42.500000 -14.000000 -172.800003 199 201 186 
-42.000000 -14.000000 -172.800003 199 201 186 
-41.500000 -14.000000 -172.800003 199 201 186 
-41.000000 -14.000000 -172.800003 198 199 186 
-40.500000 -14.000000 -172.800003 198 197 186 
-40.000000 -14.000000 -172.800003 197 196 185 
-39.500000 -14.000000 -172.800003 197 196 185 
-39.000000 -14.000000 -172.800003 194 193 182 
-38.500000 -14.000000 -172.800003 195 195 184 
-38.000000 -14.000000 -172.800003 195 196 185 
-37.500000 -14.000000 -172.800003 192 194 186 
-37.000000 -14.000000 -172.800003 187 192 190 
-36.500000 -14.000000 -172.800003 169 185 189 
-36.000000 -14.000000 -172.800003 121 159 171 
-35.500000 -14.000000 -172.800003 64 120 137 
-35.000000 -14.000000 -172.800003 41 110 132 
-34.500000 -14.000000 -172.800003 40 116 144 
-34.000000 -14.000000 -172.800003 35 117 150 
-33.500000 -14.000000 -172.800003 37 119 158 
-33.000000 -14.000000 -172.800003 35 116 157 
-32.500000 -14.000000 -172.800003 27 108 149 
-32.000000 -14.000000 -172.800003 21 99 142 
-31.500000 -14.000000 -172.800003 17 92 136 
-31.000000 -14.000000 -172.800003 18 89 133 
-30.500000 -14.000000 -172.800003 17 87 132 
-30.000000 -14.000000 -172.800003 18 86 131 
-3.285714 -2.000000 -24.685715 15 83 115 
-3.214286 -2.000000 -24.685715 17 82 115 
-3.087719 -1.964912 -24.252632 20 81 115 
-2.890756 -1.882353 -23.233614 25 81 114 
-2.800000 -1.866667 -23.040001 34 82 109 
-2.733333 -1.866667 -23.040001 48 87 110 
-2.666667 -1.866667 -23.040001 97 128 145 
-2.589212 -1.858921 -22.944399 168 192 206 
-2.512397 -1.851240 -22.849586 183 204 215 
-2.426229 -1.836066 -22.662296 178 204 212 
-2.341463 -1.821138 -22.478048 169 209 221 
-2.258065 -1.806452 -22.296774 132 188 207 
-2.158730 -1.777778 -21.942858 78 154 180 
-2.078740 -1.763780 -21.770079 38 132 164 
-2.000000 -1.750000 -21.600000 25 131 168 
-1.907692 -1.723077 -21.267693 20 133 174 
-1.825095 -1.703422 -21.025095 18 132 176 
-1.705882 -1.647059 -20.329412 18 131 176 
-1.647059 -1.647059 -20.329412 18 130 176 
-1.588235 -1.647059 -20.329412 18 131 176 
-1.529412 -1.647059 -20.329412 19 131 176 
-1.470588 -1.647059 -20.329412 19 131 175 
-1.411765 -1.647059 -20.329412 21 128 177 
-1.352941 -1.647059 -20.329412 20 128 176 
-1.294118 -1.647059 -20.329412 21 127 177 
-1.235294 -1.647059 -20.329412 22 127 178 
-1.176471 -1.647059 -20.329412 22 127 178 
-1.117647 -1.647059 -20.329412 20 124 176 
-1.058824 -1.647059 -20.329412 18 122 174 
-1.000000 -1.647059 -20.329412 16 121 173 
-0.941176 -1.647059 -20.329412 17 121 172 
-0.882353 -1.647059 -20.329412 16 121 172 
-0.823529 -1.647059 -20.329412 16 121 172 
-0.764706 -1.647059 -20.329412 16 121 172 
-0.705882 -1.647059 -20.329412 17 120 174 
-0.647059 -1.647059 -20.329412 17 121 172 
-0.588235 -1.647059 -20.329412 16 121 170 
-0.529412 -1.647059 -20.329412 16 121 170 
-0.470588 -1.647059 -20.329412 17 121 170 
-0.411765 -1.647059 -20.329412 19 123 171 
-0.352941 -1.647059 -20.329412 22 126 174 
-0.294118 -1.647059 -20.329412 23 128 175 
-0.235294 -1.647059 -20.329412 19 123 171 
-0.176471 -1.647059 -20.329412 13 117 164 
-0.117647 -1.647059 -20.329412 11 115 160 
-0.058824 -1.647059 -20.329412 13 115 160 
0.000000 -1.647059 -20.329412 14 116 161 
0.058824 -1.647059 -20.329412 16 118 163 
0.117647 -1.647059 -20.329412 14 117 162 
0.176471 -1.647059 -20.329412 12 115 160 
0.235294 -1.647059 -20.329412 13 114 159 
0.294118 -1.647059 -20.329412 13 113 157 
0.352941 -1.647059 -20.329412 15 112 157 
0.411765 -1.647059 -20.329412 17 112 156 
0.470588 -1.647059 -20.329412 17 111 153 
0.529412 -1.647059 -20.329412 14 107 149 
0.588235 -1.647059 -20.329412 13 106 146 
0.647059 -1.647059 -20.329412 16 107 145 
0.705882 -1.647059 -20.329412 19 107 144 
0.764706 -1.647059 -20.329412 23 108 144 
0.823529 -1.647059 -20.329412 26 107 143 
0.882353 -1.647059 -20.329412 28 106 142 
0.941176 -1.647059 -20.329412 29 104 140 
1.000000 -1.647059 -20.329412 29 102 139 
1.058824 -1.647059 -20.329412 28 100 133 
1.117647 -1.647059 -20.329412 28 97 129 
1.176471 -1.647059 -20.329412 28 96 126 
1.235294 -1.647059 -20.329412 26 91 120 
1.294118 -1.647059 -20.329412 28 89 116 
1.352941 -1.647059 -20.329412 30 87 110 
1.411765 -1.647059 -20.329412 39 85 104 
1.470588 -1.647059 -20.329412 49 82 96 
1.529412 -1.647059 -20.329412 56 75 84 
1.588235 -1.647059 -20.329412 61 67 71 
4.255319 -2.382979 -29.412767 49 34 33 
4.340425 -2.382979 -29.412767 43 30 28 
4.449198 -2.395722 -29.570053 38 27 22 
4.559140 -2.408602 -29.729033 35 26 18 
4.721312 -2.448087 -30.216394 34 26 15 
4.861878 -2.475138 -30.550278 47 38 24 
5.062147 -2.531073 -31.240679 80 68 51 
5.181818 -2.545455 -31.418182 121 105 88 
5.272727 -2.545455 -31.418182 125 105 89 
5.791411 -2.748466 -33.923927 123 101 83 
6.153846 -2.871795 -35.446156 125 100 81 
4.117647 -1.647059 -20.329412 123 96 78 
4.176471 -1.647059 -20.329412 127 100 82 
4.235294 -1.647059 -20.329412 129 102 84 
4.294117 -1.647059 -20.329412 130 103 84 
4.352941 -1.647059 -20.329412 130 103 85 
4.411765 -1.647059 -20.329412 130 102 86 
4.470588 -1.647059 -20.329412 131 103 91 
4.529412 -1.647059 -20.329412 129 103 93 
4.588235 -1.647059 -20.329412 115 91 83 
4.647059 -1.647059 -20.329412 103 82 75 
4.705883 -1.647059 -20.329412 89 70 64 
4.764706 -1.647059 -20.329412 58 40 36 
4.823529 -1.647059 -20.329412 39 24 20 
4.882353 -1.647059 -20.329412 32 19 15 
4.941176 -1.647059 -20.329412 29 17 14 
5.000000 -1.647059 -20.329412 29 17 16 
5.058824 -1.647059 -20.329412 28 16 16 
5.117647 -1.647059 -20.329412 29 17 17 
5.176471 -1.647059 -20.329412 28 16 16 
5.235294 -1.647059 -20.329412 29 18 17 
5.294117 -1.647059 -20.329412 30 18 18 
5.352941 -1.647059 -20.329412 31 18 18 
5.411765 -1.647059 -20.329412 31 17 17 
5.470588 -1.647059 -20.329412 33 18 18 
5.529412 -1.647059 -20.329412 34 18 18 
5.588235 -1.647059 -20.329412 35 18 19 
5.647059 -1.647059 -20.329412 36 19 19 
5.705883 -1.647059 -20.329412 38 20 19 
5.764706 -1.647059 -20.329412 38 20 19 
5.823529 -1.647059 -20.329412 39 21 20 
5.882353 -1.647059 -20.329412 42 24 22 
5.941176 -1.647059 -20.329412 43 25 22 
6.000000 -1.647059 -20.329412 43 25 22 
6.058824 -1.647059 -20.329412 43 25 22 
6.117647 -1.647059 -20.329412 40 22 19 
6.176471 -1.647059 -20.329412 39 21 18 
6.235294 -1.647059 -20.329412 39 21 18 
6.294117 -1.647059 -20.329412 40 22 19 
6.352941 -1.647059 -20.329412 42 24 20 
6.411765 -1.647059 -20.329412 44 26 21 
6.470588 -1.647059 -20.329412 47 29 24 
6.529412 -1.647059 -20.329412 49 31 26 
6.588235 -1.647059 -20.329412 51 33 27 
6.647059 -1.647059 -20.329412 52 35 27 
6.705883 -1.647059 -20.329412 52 35 27 
6.764706 -1.647059 -20.329412 54 37 29 
6.823529 -1.647059 -20.329412 56 39 30 
6.882353 -1.647059 -20.329412 57 40 31 
6.941176 -1.647059 -20.329412 56 39 29 
7.000000 -1.647059 -20.329412 55 38 27 
7.058824 -1.647059 -20.329412 54 36 23 
7.117647 -1.647059 -20.329412 62 43 29 
7.176471 -1.647059 -20.329412 71 53 37 
7.235294 -1.647059 -20.329412 91 73 55 
7.294117 -1.647059 -20.329412 116 99 79 
7.352941 -1.647059 -20.329412 136 119 99 
7.411765 -1.647059 -20.329412 153 137 112 
7.470588 -1.647059 -20.329412 161 145 120 
7.529412 -1.647059 -20.329412 165 148 123 
7.588235 -1.647059 -20.329412 166 149 122 
7.647059 -1.647059 -20.329412 166 149 121 
8.417670 -1.799197 -22.207230 164 149 120 
8.800000 -1.866667 -23.040001 163 149 120 
8.866667 -1.866667 -23.040001 159 145 117 
9.241380 -1.931034 -23.834484 156 142 115 
9.391304 -1.947826 -24.041740 145 130 103 
9.502183 -1.956332 -24.146725 137 120 94 
9.572052 -1.956332 -24.146725 125 106 83 
9.641921 -1.956332 -24.146725 104 83 60 
9.669565 -1.947826 -24.041740 93 72 49 
9.655172 -1.931034 -23.834484 89 68 45 
9.559322 -1.898305 -23.430510 86 64 41 
9.586498 -1.890295 -23.331646 84 60 36 
9.991266 -1.956332 -24.146725 87 63 39 
95.500000 -14.000000 -172.800003 61 46 32 
96.000000 -14.000000 -172.800003 62 46 33 
96.500000 -14.000000 -172.800003 62 43 31 
97.000000 -14.000000 -172.800003 60 41 29 
12.411765 -1.647059 -20.329412 65 43 25 
12.470589 -1.647059 -20.329412 66 42 27 
12.529411 -1.647059 -20.329412 67 44 29 
12.588235 -1.647059 -20.329412 67 44 30 
12.647058 -1.647059 -20.329412 68 45 30 
-49.000000 -14.500000 -172.800003 204 203 192 
-48.500000 -14.500000 -172.800003 204 203 192 
-48.000000 -14.500000 -172.800003 204 203 192 
-47.500000 -14.500000 -172.800003 204 203 192 
-47.000000 -14.500000 -172.800003 204 203 192 
-46.500000 -14.500000 -172.800003 204 203 192 
-46.000000 -14.500000 -172.800003 204 203 192 
-45.500000 -14.500000 -172.800003 203 202 191 
-45.000000 -14.500000 -172.800003 202 201 190 
-44.500000 -14.500000 -172.800003 202 201 190 
-44.000000 -14.500000 -172.800003 201 200 189 
-43.500000 -14.500000 -172.800003 201 200 189 
-43.000000 -14.500000 -172.800003 198 198 186 
-42.500000 -14.500000 -172.800003 197 199 184 
-42.000000 -14.500000 -172.800003 197 199 184 
-41.500000 -14.500000 -172.800003 197 199 184 
-41.000000 -14.500000 -172.800003 198 198 184 
-40.500000 -14.500000 -172.800003 199 198 186 
-40.000000 -14.500000 -172.800003 198 197 186 
-39.500000 -14.500000 -172.800003 197 196 185 
-39.000000 -14.500000 -172.800003 196 195 184 
-38.500000 -14.500000 -172.800003 196 195 186 
-38.000000 -14.500000 -172.800003 196 195 186 
-37.500000 -14.500000 -172.800003 192 193 185 
-37.000000 -14.500000 -172.800003 184 192 187 
-36.500000 -14.500000 -172.800003 170 187 189 
-36.000000 -14.500000 -172.800003 128 165 176 
-35.500000 -14.500000 -172.800003 65 123 138 
-35.000000 -14.500000 -172.800003 41 111 131 
-34.500000 -14.500000 -172.800003 41 116 142 
-34.000000 -14.500000 -172.800003 41 117 150 
-33.500000 -14.500000 -172.800003 38 121 157 
-33.000000 -14.500000 -172.800003 36 115 155 
-32.500000 -14.500000 -172.800003 30 108 148 
-32.000000 -14.500000 -172.800003 23 99 141 
-31.500000 -14.500000 -172.800003 19 93 135 
-31.000000 -14.500000 -172.800003 18 89 131 
-30.500000 -14.500000 -172.800003 17 87 130 
-30.000000 -14.500000 -172.800003 16 86 129 
-29.500000 -14.500000 -172.800003 16 86 129 
-3.285714 -2.071429 -24.685715 16 82 116 
-3.214286 -2.071429 -24.685715 16 80 116 
-2.957983 -1.949580 -23.233614 20 81 117 
-2.866667 -1.933333 -23.040001 23 80 118 
-2.800000 -1.933333 -23.040001 31 80 112 
-2.721992 -1.925311 -22.944399 36 77 103 
-2.655602 -1.925311 -22.944399 66 99 118 
-2.578512 -1.917355 -22.849586 153 178 193 
-2.471545 -1.886179 -22.478048 183 204 215 
-2.358566 -1.848606 -22.030279 184 205 214 
-2.285714 -1.841270 -21.942858 178 210 222 
-2.213439 -1.833992 -21.856127 149 196 216 
-2.133333 -1.819608 -21.684706 95 163 187 
-2.062500 -1.812500 -21.600000 38 126 156 
-1.976834 -1.791506 -21.349808 26 127 163 
-1.900383 -1.777778 -21.186207 22 131 172 
-1.764706 -1.705882 -20.329412 22 132 177 
-1.705882 -1.705882 -20.329412 21 134 176 
-1.647059 -1.705882 -20.329412 20 131 175 
-1.588235 -1.705882 -20.329412 21 131 176 
-1.529412 -1.705882 -20.329412 21 131 176 
-1.470588 -1.705882 -20.329412 20 130 175 
-1.411765 -1.705882 -20.329412 20 125 174 
-1.352941 -1.705882 -20.329412 19 124 175 
-1.294118 -1.705882 -20.329412 20 124 175 
-1.235294 -1.705882 -20.329412 19 122 174 
-1.176471 -1.705882 -20.329412 17 120 173 
-1.117647 -1.705882 -20.329412 16 118 173 
-1.058824 -1.705882 -20.329412 16 118 173 
-1.000000 -1.705882 -20.329412 16 118 173 
-0.941176 -1.705882 -20.329412 17 118 173 
-0.882353 -1.705882 -20.329412 18 119 173 
-0.823529 -1.705882 -20.329412 16 119 172 
-0.764706 -1.705882 -20.329412 16 118 173 
-0.705882 -1.705882 -20.329412 16 119 171 
-0.647059 -1.705882 -20.329412 16 119 171 
-0.588235 -1.705882 -20.329412 16 119 170 
-0.529412 -1.705882 -20.329412 17 120 170 
-0.470588 -1.705882 -20.329412 18 121 171 
-0.411765 -1.705882 -20.329412 20 123 173 
-0.352941 -1.705882 -20.329412 22 125 173 
-0.294118 -1.705882 -20.329412 22 125 173 
-0.235294 -1.705882 -20.329412 18 121 169 
-0.176471 -1.705882 -20.329412 13 116 164 
-0.117647 -1.705882 -20.329412 11 113 161 
-0.058824 -1.705882 -20.329412 13 115 160 
0.000000 -1.705882 -20.329412 16 116 162 
0.058824 -1.705882 -20.329412 16 118 163 
0.117647 -1.705882 -20.329412 14 116 161 
0.176471 -1.705882 -20.329412 13 114 160 
0.235294 -1.705882 -20.329412 14 113 159 
0.294118 -1.705882 -20.329412 15 112 159 
0.352941 -1.705882 -20.329412 17 114 159 
0.411765 -1.705882 -20.329412 19 115 158 
0.470588 -1.705882 -20.329412 19 113 155 
0.529412 -1.705882 -20.329412 17 110 151 
0.588235 -1.705882 -20.329412 15 107 147 
0.647059 -1.705882 -20.329412 17 108 146 
0.705882 -1.705882 -20.329412 19 109 145 
0.764706 -1.705882 -20.329412 26 112 148 
0.823529 -1.705882 -20.329412 29 111 146 
0.882353 -1.705882 -20.329412 30 107 142 
0.941176 -1.705882 -20.329412 29 104 138 
1.000000 -1.705882 -20.329412 28 101 136 
1.058824 -1.705882 -20.329412 29 98 132 
1.117647 -1.705882 -20.329412 28 97 127 
1.176471 -1.705882 -20.329412 28 95 124 
1.235294 -1.705882 -20.329412 27 91 119 
1.294118 -1.705882 -20.329412 29 89 116 
1.352941 -1.705882 -20.329412 32 87 112 
1.411765 -1.705882 -20.329412 40 85 104 
1.470588 -1.705882 -20.329412 49 82 96 
4.232804 -2.455026 -29.257143 49 35 32 
4.317461 -2.455026 -29.257143 41 29 25 
4.449198 -2.481283 -29.570053 37 26 21 
4.559140 -2.494624 -29.729033 34 25 17 
4.773481 -2.563536 -30.550278 33 25 14 
5.000000 -2.636364 -31.418182 45 36 22 
5.090909 -2.636364 -31.418182 76 64 47 
5.181818 -2.636364 -31.418182 117 101 84 
5.836478 -2.918239 -34.777359 123 104 87 
6.051282 -2.974359 -35.446156 121 101 83 
6.530612 -3.156463 -37.616325 124 99 82 
4.058824 -1.705882 -20.329412 115 88 72 
4.117647 -1.705882 -20.329412 120 93 75 
4.176471 -1.705882 -20.329412 122 95 77 
4.235294 -1.705882 -20.329412 127 98 78 
4.294117 -1.705882 -20.329412 128 99 79 
4.352941 -1.705882 -20.329412 127 99 80 
4.411765 -1.705882 -20.329412 125 98 82 
4.470588 -1.705882 -20.329412 126 99 86 
4.529412 -1.705882 -20.329412 125 99 89 
4.588235 -1.705882 -20.329412 115 93 85 
4.647059 -1.705882 -20.329412 104 84 77 
4.705883 -1.705882 -20.329412 87 68 62 
4.764706 -1.705882 -20.329412 58 41 36 
4.823529 -1.705882 -20.329412 42 26 23 
4.882353 -1.705882 -20.329412 34 21 18 
4.941176 -1.705882 -20.329412 31 18 15 
5.000000 -1.705882 -20.329412 29 17 17 
5.058824 -1.705882 -20.329412 30 18 18 
5.117647 -1.705882 -20.329412 30 18 18 
5.176471 -1.705882 -20.329412 29 17 17 
5.235294 -1.705882 -20.329412 29 17 17 
5.294117 -1.705882 -20.329412 29 17 17 
5.352941 -1.705882 -20.329412 30 16 16 
5.411765 -1.705882 -20.329412 29 15 15 
5.470588 -1.705882 -20.329412 29 16 15 
5.529412 -1.705882 -20.329412 31 17 14 
5.588235 -1.705882 -20.329412 34 18 16 
5.647059 -1.705882 -20.329412 35 19 17 
5.705883 -1.705882 -20.329412 37 20 19 
5.764706 -1.705882 -20.329412 37 19 18 
5.823529 -1.705882 -20.329412 38 20 19 
5.882353 -1.705882 -20.329412 41 23 22 
5.941176 -1.705882 -20.329412 43 25 22 
6.000000 -1.705882 -20.329412 42 24 21 
6.058824 -1.705882 -20.329412 42 24 21 
6.117647 -1.705882 -20.329412 41 23 20 
6.176471 -1.705882 -20.329412 40 22 19 
6.235294 -1.705882 -20.329412 39 21 18 
6.294117 -1.705882 -20.329412 39 21 18 
6.352941 -1.705882 -20.329412 43 25 20 
6.411765 -1.705882 -20.329412 45 27 22 
6.470588 -1.705882 -20.329412 47 29 24 
6.529412 -1.705882 -20.329412 50 32 26 
6.588235 -1.705882 -20.329412 51 34 26 
6.647059 -1.705882 -20.329412 52 35 27 
6.705883 -1.705882 -20.329412 53 36 28 
6.764706 -1.705882 -20.329412 55 38 28 
6.823529 -1.705882 -20.329412 56 39 29 
6.882353 -1.705882 -20.329412 58 41 31 
6.941176 -1.705882 -20.329412 61 44 33 
7.000000 -1.705882 -20.329412 62 46 33 
7.058824 -1.705882 -20.329412 69 53 38 
7.117647 -1.705882 -20.329412 85 69 53 
7.176471 -1.705882 -20.329412 92 77 58 
7.235294 -1.705882 -20.329412 116 101 81 
7.294117 -1.705882 -20.329412 141 126 103 
7.352941 -1.705882 -20.329412 151 137 112 
9.303965 -2.044053 -24.359472 165 148 120 
9.292577 -2.026201 -24.146725 157 143 116 
9.528889 -2.062222 -24.576000 150 136 109 
9.642858 -2.071429 -24.685715 134 119 93 
9.714286 -2.071429 -24.685715 125 107 82 
9.785714 -2.071429 -24.685715 111 92 69 
9.857142 -2.071429 -24.685715 93 71 51 
9.884444 -2.062222 -24.576000 88 67 45 
9.867842 -2.044053 -24.359472 85 64 41 
9.894737 -2.035088 -24.252632 85 63 39 
9.964912 -2.035088 -24.252632 84 60 36 
95.500000 -14.500000 -172.800003 66 52 38 
96.000000 -14.500000 -172.800003 65 49 36 
96.500000 -14.500000 -172.800003 65 46 34 
12.470589 -1.705882 -20.329412 68 42 28 
12.529411 -1.705882 -20.329412 68 43 30 
12.588235 -1.705882 -20.329412 67 44 31 
12.647058 -1.705882 -20.329412 67 44 31 
-49.000000 -15.000000 -172.800003 204 203 192 
-48.500000 -15.000000 -172.800003 204 203 192 
-48.000000 -15.000000 -172.800003 204 203 192 
-47.500000 -15.000000 -172.800003 204 203 192 
-47.000000 -15.000000 -172.800003 204 203 192 
-46.500000 -15.000000 -172.800003 204 203 192 
-46.000000 -15.000000 -172.800003 204 203 192 
-45.500000 -15.000000 -172.800003 203 202 191 
-45.000000 -15.000000 -172.800003 203 202 191 
-44.500000 -15.000000 -172.800003 202 201 190 
-44.000000 -15.000000 -172.800003 201 200 189 
-43.500000 -15.000000 -172.800003 201 200 189 
-43.000000 -15.000000 -172.800003 199 198 187 
-42.500000 -15.000000 -172.800003 199 198 187 
-42.000000 -15.000000 -172.800003 198 197 186 
-41.500000 -15.000000 -172.800003 198 197 186 
-41.000000 -15.000000 -172.800003 199 199 186 
-40.500000 -15.000000 -172.800003 200 199 186 
-40.000000 -15.000000 -172.800003 199 198 187 
-39.500000 -15.000000 -172.800003 197 196 185 
-39.000000 -15.000000 -172.800003 196 195 184 
-38.500000 -15.000000 -172.800003 196 195 186 
-38.000000 -15.000000 -172.800003 196 195 186 
-37.500000 -15.000000 -172.800003 192 194 186 
-37.000000 -15.000000 -172.800003 183 191 186 
-36.500000 -15.000000 -172.800003 171 188 190 
-36.000000 -15.000000 -172.800003 133 170 181 
-35.500000 -15.000000 -172.800003 72 127 143 
-35.000000 -15.000000 -172.800003 41 110 131 
-34.500000 -15.000000 -172.800003 37 112 138 
-34.000000 -15.000000 -172.800003 37 116 145 
-33.500000 -15.000000 -172.800003 34 119 150 
-32.000000 -15.000000 -172.800003 26 99 142 
-31.500000 -15.000000 -172.800003 20 91 135 
-31.000000 -15.000000 -172.800003 18 88 133 
-30.500000 -15.000000 -172.800003 17 87 130 
-30.000000 -15.000000 -172.800003 17 87 130 
-29.500000 -15.000000 -172.800003 19 87 131 
-3.214286 -2.142857 -24.685715 16 78 117 
-2.933333 -2.000000 -23.040001 20 80 119 
-2.866667 -2.000000 -23.040001 24 81 119 
-2.788382 -1.991701 -22.944399 33 82 116 
-2.721992 -1.991701 -22.944399 37 80 107 
-2.633745 -1.975309 -22.755556 51 85 107 
-2.496000 -1.920000 -22.118401 125 152 169 
-2.403162 -1.897233 -21.856127 177 199 212 
-2.330709 -1.889764 -21.770079 185 206 215 
-2.267717 -1.889764 -21.770079 185 210 223 
-2.196079 -1.882353 -21.684706 165 204 221 
-2.125000 -1.875000 -21.600000 124 183 205 
-2.046512 -1.860465 -21.432558 60 139 166 
-1.969231 -1.846154 -21.267693 31 126 158 
-1.885932 -1.825095 -21.025095 24 129 167 
-1.764706 -1.764706 -20.329412 24 133 174 
-1.705882 -1.764706 -20.329412 24 134 176 
-1.647059 -1.764706 -20.329412 22 132 176 
-1.588235 -1.764706 -20.329412 22 131 177 
-1.529412 -1.764706 -20.329412 24 132 179 
-1.470588 -1.764706 -20.329412 21 129 177 
-1.411765 -1.764706 -20.329412 19 124 175 
-1.352941 -1.764706 -20.329412 18 120 174 
-1.294118 -1.764706 -20.329412 17 118 173 
-1.235294 -1.764706 -20.329412 16 116 171 
-1.176471 -1.764706 -20.329412 13 113 168 
-1.117647 -1.764706 -20.329412 13 113 170 
-1.058824 -1.764706 -20.329412 14 114 171 
-1.000000 -1.764706 -20.329412 16 116 173 
-0.941176 -1.764706 -20.329412 18 117 174 
-0.882353 -1.764706 -20.329412 18 117 175 
-0.823529 -1.764706 -20.329412 17 117 174 
-0.764706 -1.764706 -20.329412 17 117 172 
-0.705882 -1.764706 -20.329412 14 117 169 
-0.647059 -1.764706 -20.329412 14 117 169 
-0.588235 -1.764706 -20.329412 14 117 169 
-0.529412 -1.764706 -20.329412 16 119 171 
-0.470588 -1.764706 -20.329412 17 120 171 
-0.411765 -1.764706 -20.329412 18 121 171 
-0.352941 -1.764706 -20.329412 18 121 171 
-0.294118 -1.764706 -20.329412 16 119 169 
-0.235294 -1.764706 -20.329412 14 117 167 
-0.176471 -1.764706 -20.329412 12 115 164 
-0.117647 -1.764706 -20.329412 12 114 162 
-0.058824 -1.764706 -20.329412 14 115 163 
0.000000 -1.764706 -20.329412 15 116 164 
0.058824 -1.764706 -20.329412 17 117 163 
0.117647 -1.764706 -20.329412 16 116 162 
0.176471 -1.764706 -20.329412 16 116 162 
0.235294 -1.764706 -20.329412 19 118 164 
0.294118 -1.764706 -20.329412 20 117 164 
0.352941 -1.764706 -20.329412 22 116 162 
0.411765 -1.764706 -20.329412 22 116 160 
0.470588 -1.764706 -20.329412 22 115 159 
0.529412 -1.764706 -20.329412 19 112 154 
0.588235 -1.764706 -20.329412 16 109 148 
0.647059 -1.764706 -20.329412 19 109 145 
0.705882 -1.764706 -20.329412 24 112 146 
0.764706 -1.764706 -20.329412 30 116 151 
0.823529 -1.764706 -20.329412 32 114 149 
0.882353 -1.764706 -20.329412 31 107 143 
0.941176 -1.764706 -20.329412 30 103 139 
1.000000 -1.764706 -20.329412 29 100 136 
1.058824 -1.764706 -20.329412 28 97 131 
1.117647 -1.764706 -20.329412 27 96 127 
1.176471 -1.764706 -20.329412 28 95 124 
1.235294 -1.764706 -20.329412 27 92 118 
1.294118 -1.764706 -20.329412 30 90 115 
4.232804 -2.539683 -29.257143 49 34 32 
4.317461 -2.539683 -29.257143 41 28 24 
4.449198 -2.566845 -29.570053 37 26 19 
4.685083 -2.651934 -30.550278 33 24 16 
4.909091 -2.727273 -31.418182 31 23 10 
5.086705 -2.774566 -31.963007 41 32 18 
5.270588 -2.823529 -32.527058 72 60 43 
5.735849 -3.018868 -34.777359 112 97 78 
6.400000 -3.310345 -38.135174 121 102 83 
6.510345 -3.310345 -38.135174 120 100 82 
6.666667 -3.333333 -38.400002 122 100 82 
4.058824 -1.764706 -20.329412 116 89 71 
4.117647 -1.764706 -20.329412 119 92 74 
4.176471 -1.764706 -20.329412 120 93 75 
4.235294 -1.764706 -20.329412 124 94 77 
4.294117 -1.764706 -20.329412 123 95 77 
4.352941 -1.764706 -20.329412 120 93 77 
4.411765 -1.764706 -20.329412 117 91 76 
4.470588 -1.764706 -20.329412 116 90 78 
4.529412 -1.764706 -20.329412 109 86 73 
4.588235 -1.764706 -20.329412 101 81 72 
4.647059 -1.764706 -20.329412 87 69 61 
4.705883 -1.764706 -20.329412 68 51 46 
4.764706 -1.764706 -20.329412 49 34 30 
4.823529 -1.764706 -20.329412 39 26 21 
4.882353 -1.764706 -20.329412 35 22 19 
4.941176 -1.764706 -20.329412 29 18 15 
5.000000 -1.764706 -20.329412 30 18 18 
5.058824 -1.764706 -20.329412 30 18 18 
5.117647 -1.764706 -20.329412 31 18 18 
5.176471 -1.764706 -20.329412 32 18 18 
5.235294 -1.764706 -20.329412 33 19 19 
5.294117 -1.764706 -20.329412 33 19 19 
5.352941 -1.764706 -20.329412 34 18 18 
5.411765 -1.764706 -20.329412 34 17 18 
5.470588 -1.764706 -20.329412 34 17 17 
5.529412 -1.764706 -20.329412 34 18 16 
5.588235 -1.764706 -20.329412 33 17 15 
5.647059 -1.764706 -20.329412 36 18 17 
5.705883 -1.764706 -20.329412 38 20 19 
5.764706 -1.764706 -20.329412 39 21 20 
5.823529 -1.764706 -20.329412 40 22 21 
5.882353 -1.764706 -20.329412 44 26 25 
5.941176 -1.764706 -20.329412 44 26 23 
6.000000 -1.764706 -20.329412 43 25 22 
6.058824 -1.764706 -20.329412 43 25 22 
6.117647 -1.764706 -20.329412 43 25 22 
6.176471 -1.764706 -20.329412 44 25 22 
6.235294 -1.764706 -20.329412 44 23 21 
6.294117 -1.764706 -20.329412 41 20 18 
6.352941 -1.764706 -20.329412 42 24 21 
6.411765 -1.764706 -20.329412 44 26 21 
6.470588 -1.764706 -20.329412 45 27 22 
6.529412 -1.764706 -20.329412 49 31 25 
6.588235 -1.764706 -20.329412 49 32 24 
6.647059 -1.764706 -20.329412 51 34 26 
6.705883 -1.764706 -20.329412 52 35 25 
6.764706 -1.764706 -20.329412 56 39 29 
6.823529 -1.764706 -20.329412 61 44 34 
6.882353 -1.764706 -20.329412 64 47 36 
6.941176 -1.764706 -20.329412 69 54 40 
7.000000 -1.764706 -20.329412 77 63 49 
7.058824 -1.764706 -20.329412 97 83 67 
7.117647 -1.764706 -20.329412 113 100 80 
7.176471 -1.764706 -20.329412 119 106 84 
7.235294 -1.764706 -20.329412 136 123 99 
7.294117 -1.764706 -20.329412 150 138 111 
9.513514 -2.162162 -24.908108 153 136 108 
9.585586 -2.162162 -24.908108 146 131 104 
9.789954 -2.191781 -25.249315 130 116 91 
9.863013 -2.191781 -25.249315 115 100 76 
9.936073 -2.191781 -25.249315 106 89 65 
10.009132 -2.191781 -25.249315 96 76 56 
10.036364 -2.181818 -25.134546 89 67 47 
10.063349 -2.171946 -25.020815 85 63 43 
10.090090 -2.162162 -24.908108 83 62 40 
10.162162 -2.162162 -24.908108 83 62 39 
95.000000 -15.000000 -172.800003 68 52 39 
95.500000 -15.000000 -172.800003 67 51 38 
96.000000 -15.000000 -172.800003 63 47 34 
-49.000000 -15.500000 -172.800003 204 203 194 
-48.500000 -15.500000 -172.800003 205 204 194 
-48.000000 -15.500000 -172.800003 205 204 193 
-47.500000 -15.500000 -172.800003 204 203 192 
-47.000000 -15.500000 -172.800003 204 203 192 
-46.500000 -15.500000 -172.800003 204 203 192 
-46.000000 -15.500000 -172.800003 204 203 192 
-45.500000 -15.500000 -172.800003 204 203 192 
-45.000000 -15.500000 -172.800003 203 202 191 
-44.500000 -15.500000 -172.800003 203 202 191 
-44.000000 -15.500000 -172.800003 201 200 189 
-43.500000 -15.500000 -172.800003 201 200 189 
-43.000000 -15.500000 -172.800003 200 199 188 
-42.500000 -15.500000 -172.800003 200 199 188 
-42.000000 -15.500000 -172.800003 200 200 186 
-41.500000 -15.500000 -172.800003 200 199 186 
-41.000000 -15.500000 -172.800003 200 199 187 
-40.500000 -15.500000 -172.800003 200 199 188 
-40.000000 -15.500000 -172.800003 200 199 188 
-39.500000 -15.500000 -172.800003 198 197 186 
-39.000000 -15.500000 -172.800003 199 196 187 
-38.500000 -15.500000 -172.800003 196 195 185 
-38.000000 -15.500000 -172.800003 196 195 184 
-37.500000 -15.500000 -172.800003 193 194 186 
-37.000000 -15.500000 -172.800003 184 192 187 
-36.500000 -15.500000 -172.800003 172 190 190 
-31.500000 -15.500000 -172.800003 20 91 135 
-31.000000 -15.500000 -172.800003 18 88 133 
-30.500000 -15.500000 -172.800003 18 88 131 
-30.000000 -15.500000 -172.800003 18 88 131 
-29.500000 -15.500000 -172.800003 20 88 130 
-2.933333 -2.066667 -23.040001 20 79 118 
-2.866667 -2.066667 -23.040001 26 82 121 
-2.788382 -2.058091 -22.944399 34 83 117 
-2.710744 -2.049587 -22.849586 39 82 111 
-2.560000 -1.984000 -22.118401 42 80 102 
-2.447059 -1.945098 -21.684706 86 117 134 
-2.384314 -1.945098 -21.684706 146 171 183 
-2.321569 -1.945098 -21.684706 180 201 210 
-2.250000 -1.937500 -21.600000 186 209 221 
-2.187500 -1.937500 -21.600000 178 211 226 
-2.116731 -1.929961 -21.515953 154 205 226 
-2.038610 -1.915058 -21.349808 82 153 179 
-1.961686 -1.900383 -21.186207 32 121 152 
-1.885932 -1.885932 -21.025095 28 130 165 
-1.764706 -1.823529 -20.329412 28 135 174 
-1.705882 -1.823529 -20.329412 25 134 175 
-1.647059 -1.823529 -20.329412 23 133 175 
-1.588235 -1.823529 -20.329412 23 132 176 
-1.529412 -1.823529 -20.329412 23 131 177 
-1.470588 -1.823529 -20.329412 18 126 174 
-1.411765 -1.823529 -20.329412 13 120 170 
-1.352941 -1.823529 -20.329412 13 116 170 
-1.294118 -1.823529 -20.329412 13 113 168 
-1.235294 -1.823529 -20.329412 13 113 168 
-1.176471 -1.823529 -20.329412 13 113 168 
-1.117647 -1.823529 -20.329412 14 114 169 
-1.058824 -1.823529 -20.329412 15 115 171 
-1.000000 -1.823529 -20.329412 17 117 172 
-0.941176 -1.823529 -20.329412 18 116 172 
-0.882353 -1.823529 -20.329412 18 117 173 
-0.823529 -1.823529 -20.329412 18 118 173 
-0.764706 -1.823529 -20.329412 16 116 171 
-0.705882 -1.823529 -20.329412 12 115 167 
-0.647059 -1.823529 -20.329412 12 115 167 
-0.588235 -1.823529 -20.329412 13 116 168 
-0.529412 -1.823529 -20.329412 14 117 169 
-0.470588 -1.823529 -20.329412 15 118 170 
-0.411765 -1.823529 -20.329412 16 119 171 
-0.352941 -1.823529 -20.329412 16 119 171 
-0.294118 -1.823529 -20.329412 15 118 170 
-0.235294 -1.823529 -20.329412 12 115 167 
-0.176471 -1.823529 -20.329412 12 115 166 
-0.117647 -1.823529 -20.329412 12 115 165 
-0.058824 -1.823529 -20.329412 14 117 166 
0.000000 -1.823529 -20.329412 17 118 166 
0.058824 -1.823529 -20.329412 17 117 165 
0.117647 -1.823529 -20.329412 18 117 166 
0.176471 -1.823529 -20.329412 19 119 166 
0.235294 -1.823529 -20.329412 21 120 166 
0.294118 -1.823529 -20.329412 21 118 165 
0.352941 -1.823529 -20.329412 22 116 164 
0.411765 -1.823529 -20.329412 24 116 163 
0.470588 -1.823529 -20.329412 22 115 160 
0.529412 -1.823529 -20.329412 19 112 155 
0.588235 -1.823529 -20.329412 16 109 148 
0.647059 -1.823529 -20.329412 18 108 144 
0.705882 -1.823529 -20.329412 22 110 144 
0.764706 -1.823529 -20.329412 26 112 146 
0.823529 -1.823529 -20.329412 29 110 145 
0.882353 -1.823529 -20.329412 30 107 142 
0.941176 -1.823529 -20.329412 30 103 140 
1.000000 -1.823529 -20.329412 29 100 136 
1.058824 -1.823529 -20.329412 29 97 131 
1.117647 -1.823529 -20.329412 28 96 127 
1.176471 -1.823529 -20.329412 28 95 123 
1.235294 -1.823529 -20.329412 27 92 117 
4.508287 -2.740331 -30.550278 42 29 24 
4.596685 -2.740331 -30.550278 38 27 20 
4.845714 -2.834286 -31.597715 33 23 16 
5.112426 -2.934911 -32.719528 31 22 9 
5.465838 -3.080745 -34.345341 40 31 16 
6.222222 -3.444444 -38.400002 70 58 41 
6.333333 -3.444444 -38.400002 111 97 78 
6.444445 -3.444444 -38.400002 118 101 82 
6.555555 -3.444444 -38.400002 122 102 84 
6.808511 -3.517730 -39.217022 123 101 83 
4.058824 -1.823529 -20.329412 115 88 70 
4.117647 -1.823529 -20.329412 117 90 72 
4.176471 -1.823529 -20.329412 118 91 73 
4.235294 -1.823529 -20.329412 119 92 74 
4.294117 -1.823529 -20.329412 117 90 72 
4.352941 -1.823529 -20.329412 115 89 71 
4.411765 -1.823529 -20.329412 110 84 69 
4.470588 -1.823529 -20.329412 105 80 67 
4.529412 -1.823529 -20.329412 100 78 67 
4.588235 -1.823529 -20.329412 85 65 57 
4.647059 -1.823529 -20.329412 63 45 37 
4.705883 -1.823529 -20.329412 50 35 29 
4.764706 -1.823529 -20.329412 42 29 24 
4.823529 -1.823529 -20.329412 38 26 21 
4.882353 -1.823529 -20.329412 33 22 17 
4.941176 -1.823529 -20.329412 30 19 16 
5.000000 -1.823529 -20.329412 32 19 18 
5.058824 -1.823529 -20.329412 32 19 19 
5.117647 -1.823529 -20.329412 33 19 19 
5.176471 -1.823529 -20.329412 33 18 18 
5.235294 -1.823529 -20.329412 35 18 19 
5.294117 -1.823529 -20.329412 36 20 20 
5.352941 -1.823529 -20.329412 37 20 21 
5.411765 -1.823529 -20.329412 36 19 20 
5.470588 -1.823529 -20.329412 34 18 18 
5.529412 -1.823529 -20.329412 34 18 16 
5.588235 -1.823529 -20.329412 35 17 16 
5.647059 -1.823529 -20.329412 36 18 17 
5.705883 -1.823529 -20.329412 38 20 19 
5.764706 -1.823529 -20.329412 43 25 24 
5.823529 -1.823529 -20.329412 45 27 25 
5.882353 -1.823529 -20.329412 47 29 26 
5.941176 -1.823529 -20.329412 47 29 26 
6.000000 -1.823529 -20.329412 45 27 24 
6.058824 -1.823529 -20.329412 45 25 23 
6.117647 -1.823529 -20.329412 46 25 23 
6.176471 -1.823529 -20.329412 46 25 23 
6.235294 -1.823529 -20.329412 46 25 23 
6.294117 -1.823529 -20.329412 44 23 21 
6.352941 -1.823529 -20.329412 45 24 22 
6.411765 -1.823529 -20.329412 44 25 21 
6.470588 -1.823529 -20.329412 42 25 18 
6.529412 -1.823529 -20.329412 44 27 19 
6.588235 -1.823529 -20.329412 46 29 21 
6.647059 -1.823529 -20.329412 50 33 25 
6.705883 -1.823529 -20.329412 57 40 30 
6.764706 -1.823529 -20.329412 64 47 37 
6.823529 -1.823529 -20.329412 71 55 43 
6.882353 -1.823529 -20.329412 77 61 49 
6.941176 -1.823529 -20.329412 85 69 56 
7.000000 -1.823529 -20.329412 97 83 67 
7.058824 -1.823529 -20.329412 112 98 81 
7.117647 -1.823529 -20.329412 122 109 89 
7.176471 -1.823529 -20.329412 129 117 93 
7.235294 -1.823529 -20.329412 139 127 100 
9.658986 -2.285714 -25.482029 148 131 104 
9.556561 -2.244344 -25.020815 134 117 90 
9.806452 -2.285714 -25.482029 127 111 86 
10.113208 -2.339623 -26.083019 114 97 75 
10.188680 -2.339623 -26.083019 104 86 64 
10.264151 -2.339623 -26.083019 94 76 55 
10.339622 -2.339623 -26.083019 88 68 48 
10.317757 -2.317757 -25.839252 88 66 46 
10.296296 -2.296296 -25.600000 84 62 42 
10.275229 -2.275229 -25.365139 84 63 41 
10.591549 -2.328639 -25.960564 82 62 39 
95.000000 -15.500000 -172.800003 62 46 33 
95.500000 -15.500000 -172.800003 61 45 32 
96.000000 -15.500000 -172.800003 60 44 31 
-49.000000 -16.000000 -172.800003 205 204 195 
-48.500000 -16.000000 -172.800003 205 204 195 
-48.000000 -16.000000 -172.800003 205 204 193 
-47.500000 -16.000000 -172.800003 205 204 193 
-47.000000 -16.000000 -172.800003 205 204 193 
-46.500000 -16.000000 -172.800003 205 204 193 
-46.000000 -16.000000 -172.800003 205 204 193 
-45.500000 -16.000000 -172.800003 204 203 192 
-45.000000 -16.000000 -172.800003 204 203 192 
-44.500000 -16.000000 -172.800003 203 202 191 
-44.000000 -16.000000 -172.800003 201 200 189 
-43.500000 -16.000000 -172.800003 201 200 188 
-43.000000 -16.000000 -172.800003 201 201 188 
-42.500000 -16.000000 -172.800003 201 201 188 
-42.000000 -16.000000 -172.800003 201 201 187 
-41.500000 -16.000000 -172.800003 200 200 186 
-41.000000 -16.000000 -172.800003 201 199 187 
-40.500000 -16.000000 -172.800003 201 198 188 
-40.000000 -16.000000 -172.800003 200 197 187 
-39.500000 -16.000000 -172.800003 199 196 186 
-39.000000 -16.000000 -172.800003 199 195 186 
-38.500000 -16.000000 -172.800003 196 195 183 
-38.000000 -16.000000 -172.800003 197 195 183 
-37.500000 -16.000000 -172.800003 194 194 184 
-37.000000 -16.000000 -172.800003 187 194 187 
-31.500000 -16.000000 -172.800003 20 90 134 
-31.000000 -16.000000 -172.800003 19 88 132 
-30.500000 -16.000000 -172.800003 19 87 131 
-30.000000 -16.000000 -172.800003 18 88 131 
-29.500000 -16.000000 -172.800003 20 89 130 
-29.000000 -16.000000 -172.800003 21 88 129 
-2.933333 -2.133333 -23.040001 22 79 119 
-2.866667 -2.133333 -23.040001 28 83 122 
-2.788382 -2.124481 -22.944399 34 83 117 
-2.624000 -2.048000 -22.118401 37 81 111 
-2.509804 -2.007843 -21.684706 38 78 101 
